18116,17250,16094,16568,16842,16976,16835,16976,16924,16894,17487,17953,18124,17783,17005,17605,19235,19561,18924,18961,19213,18065,17702,17302,16094,14932,14235,14309,15272,16257,16983,17591,18094,18657,18702,19176,19442,19731,19842,19872,20168,20442,20850,21072,21361,21346,20909,20161,19161,18524,18272,18753,19976,20087,19768,18990,18028,17672,16783,16457,16065,15443,15472,15954
16598,16546,17235,17902,18042,17731,17754,17731,17894,18131,18339,18598,18761,19190,18635,18531,18524,19872,20383,20435,20027,18827,17805,16954,15576,14420,14435,14806,15739,16709,17405,17754,18857,19768,19887,20013,20183,20368,20605,20709,20605,20561,20561,20746,20553,20338,19879,19753,19420,19339,19701,19813,20035,19872,19250,19057,19020,18576,17894,17576,17391,16028,15576,15420
17176,17635,17983,18316,18650,18887,18279,18116,18442,18576,18931,19324,19405,20324,19835,19309,19339,19679,20183,20464,19472,18539,17605,16502,15154,14628,14717,15509,16487,17516,18450,18731,19176,19946,20501,20731,20479,20309,20575,21279,21627,21405,21479,21879,21798,21005,20131,20279,20435,20472,20872,21101,20887,20383,19716,19390,19316,18798,18709,18753,17828,16746,15806,15524
18413,18205,18583,19302,20501,20494,18753,18257,19168,19472,19613,19679,20124,20938,20946,20398,19924,20050,19983,19420,18531,17879,17035,15635,14954,14932,15050,15902,17102,18568,19568,19724,19376,20042,20975,21161,21294,20938,21153,22316,22464,22390,22175,22042,21961,21294,21679,21716,21116,21287,21568,21353,20657,20094,19479,19383,19242,19568,19739,19509,18331,17294,16131,15650
19620,19924,19946,21124,21183,20738,19035,18946,19568,19872,20479,20650,20709,21405,21783,21198,20894,20176,19220,18235,17842,16731,15783,15924,16131,16131,15702,15902,17339,18783,19894,20413,20309,20316,21368,21783,21946,21901,22168,22516,22501,21975,21790,22020,22494,22746,23086,23094,22568,22827,21798,21479,21338,20894,20716,20583,20620,20442,20361,19813,18968,17509,16265,15761
19998,20353,20938,21198,20516,19842,19279,19627,20531,20953,20812,21731,21686,21694,21627,21087,20235,18739,17976,17220,16383,16205,17109,17709,17724,17709,17042,15561,16968,18213,19716,20383,20494,20753,21390,21716,21649,21620,21442,21383,21257,21012,21035,21427,22057,22457,23079,22931,22775,23042,22161,22116,21924,21635,21116,20709,20679,20316,20257,19798,18990,17539,16405,16109
19390,19879,20731,21212,21087,20835,19576,19901,20724,21746,21775,21553,21420,21138,19739,19087,18235,17894,17124,16739,16983,17354,17694,18428,18731,18561,18146,17598,16280,16413,17613,18487,19457,19909,20375,20338,20361,20398,20383,20405,20479,20590,20738,21012,21516,21583,21212,20909,20879,21175,21916,22057,21916,21301,20798,20346,20168,20087,19746,18902,18368,17554,16413,16398
18576,19168,20538,21309,21686,21227,21301,21864,21842,21731,21753,20672,19509,19116,18376,18272,17991,17791,17568,17620,17709,17976,17968,18790,19109,18961,18746,18279,16731,16798,16968,17702,18731,19731,20390,20946,21412,21398,20894,20731,20901,21064,21279,21309,21287,21316,21109,20775,20598,20538,20324,20338,20798,20642,19968,19642,19635,19079,18576,17872,17235,16791,16702,17531
18590,19183,20257,20879,21353,21575,21842,22198,21101,20635,20190,20242,20316,20309,18842,18235,18250,18265,18442,18568,18450,18487,18998,19220,19368,19198,18724,18094,17739,17309,17450,17953,18568,19701,20435,20998,21412,21479,21635,21768,21916,22072,22242,21961,21864,21598,21435,21094,20761,20168,20168,20094,20035,19916,19464,19064,18568,17768,17265,16717,16842,17205,17531,18316
19161,19361,19976,20346,20975,21027,21272,21849,21109,20938,20583,20435,19916,19827,19124,19442,19568,19472,19487,19235,19442,19161,19176,19250,19605,19509,19479,19272,18324,17842,18013,18694,18665,19102,19724,20005,20427,21390,21605,21783,21983,22398,23027,23131,23057,22005,21509,21249,21057,20650,20213,19857,19709,19250,18731,18228,17331,17094,16850,17072,17487,18065,18605,19309
19435,19968,20583,21175,21968,21968,22035,22079,21368,20975,20931,20546,19457,19094,19376,19376,19501,19642,19931,20109,20042,19650,19420,19650,19938,19835,19790,19783,18679,18509,18576,19094,19316,19331,19576,19924,20168,20487,20642,20990,21672,21946,22790,23005,22375,21761,21657,21472,21168,20709,20176,19724,19390,18842,18272,17805,17161,17109,17235,17761,18257,18909,19627,20242
19657,20338,20916,21109,21242,21309,21331,21812,21812,21264,21175,20909,20390,19709,19450,19524,19768,19879,20235,20598,20605,20257,20064,20279,20398,20361,20131,20005,19057,19020,19094,19250,19368,19539,19724,19709,19887,20531,21361,21472,21257,21316,22323,22849,22368,22286,22309,22064,21635,20827,20131,19383,18465,18079,18109,17783,17583,17494,18168,18835,19457,20301,21035,21575
19316,19672,19716,19679,19731,20109,20887,21361,21857,21872,21472,21212,20961,20842,20198,19909,20264,20620,20909,20990,21153,21101,20561,20642,20761,20561,20598,20324,19487,19353,19368,19427,19568,19627,19679,19724,19968,20975,21716,21738,21783,21835,22398,23094,23109,23123,23005,22553,21835,20746,19524,18709,18087,18205,18153,17835,17976,18613,19464,20109,20790,21427,22101,22605
18405,18665,19013,19642,20672,21487,21679,21449,21375,21094,20894,20953,21131,21212,21212,21072,21220,21235,21487,21598,21635,21575,21605,21316,21124,21050,20924,20761,20257,19598,19561,19716,19650,19835,19835,19835,20109,20790,21635,21864,21894,22086,22627,23301,23457,23264,22997,21968,21116,19783,18709,18383,18176,18183,18783,19294,19509,19724,20027,20590,21457,21768,22205,22553
18272,19035,19938,20368,20746,21324,21672,21146,20464,20516,20701,20887,21057,21235,21427,21561,21790,21812,21701,21946,22049,22072,22027,21983,22005,21568,21005,20768,20805,20857,20687,20331,20613,20094,20027,19998,20183,20390,21294,21864,22309,23094,23212,23183,22820,22205,21612,20953,20176,19213,18650,18598,18450,18509,19272,19687,20087,20279,20346,20627,21042,21561,21901,22227
17887,18546,19746,20294,21094,21146,20657,20338,20227,20390,20538,20716,20953,21198,21457,21686,21953,22183,22316,22361,22472,22464,22353,22138,22116,21701,21472,21168,21649,21635,21138,21427,21027,20168,20131,20109,20316,20375,21027,22227,22968,23168,22975,22146,21583,20983,20405,19842,19376,19124,19368,18976,18983,18724,19250,19664,20338,20983,21094,20968,20887,20812,21279,21931
17783,18213,18783,19546,20235,20257,19583,19672,19783,19798,20294,20583,20738,21101,21316,21546,21827,22242,22531,22649,22805,22842,22657,22590,22412,22390,22338,22516,22331,21812,21886,21635,21501,20316,20287,20257,20598,21101,21168,22035,22316,22398,21731,20975,20494,20094,19790,19413,19213,19509,19553,19339,19287,19139,19161,19642,20316,21101,21790,21790,21538,21368,21487,21701
16731,17561,18287,18494,18568,18724,18546,19390,19953,20279,20420,20635,20783,21020,21242,21442,21709,21938,22346,22701,22864,23205,23123,22872,22783,22864,22857,22642,22412,22212,22205,21886,21235,20561,20435,20901,21235,21309,21257,21109,20968,20850,20694,20338,20294,19931,19509,19627,19701,19679,19650,19583,19479,19353,19302,19879,20176,21027,21805,22057,21946,22072,22072,21924
16124,16635,16931,16850,17413,17613,18553,19168,20005,20198,20546,20783,21064,21205,21457,21612,21998,22220,22323,22672,23205,23494,23538,23397,23331,23316,23279,22790,22679,22664,22464,22198,20953,20938,20916,21405,21398,21694,21620,21146,20783,20664,20627,20546,20294,19790,19672,19731,19805,19857,19864,19790,19672,19613,19672,20146,20753,21353,21827,22657,22672,22479,22383,22249
16739,17035,17457,17561,17420,17339,17872,18650,18879,19709,20694,21353,21494,21716,21768,21938,22353,22657,22605,22916,23472,23783,23709,24183,24301,23923,23464,23072,22760,22649,22412,22383,21257,21235,21279,21783,22027,21761,21672,21272,21198,21531,22035,21635,20805,20213,20035,20079,20042,20005,20094,20153,20027,19887,20464,20983,21449,22249,23279,23109,22909,22864,22664,22997
16857,17146,17398,17487,17791,18072,18072,18679,19102,19598,20842,22286,22494,22346,22309,22538,22975,23316,23220,23449,24057,24279,24257,24708,25005,24153,23946,23568,23294,22879,22575,22620,21412,21472,21605,21879,22309,22286,22064,21568,21324,21686,21998,21775,21168,20879,20938,20835,20501,20413,20309,20442,20450,20331,20620,21420,22242,23116,24271,24346,23575,23242,23775,23694
18087,17709,16991,17754,18420,18420,18576,19124,19576,19590,20879,21835,22560,22672,23183,23309,23775,23746,23871,24227,24783,24997,24797,24657,24753,24368,24138,24086,24064,23457,22997,22620,22042,21805,21938,22086,22346,22560,22605,22805,22509,22101,21968,21820,21657,21501,21672,21501,20924,20909,20775,20812,20887,20938,20983,21886,22857,23909,24849,24901,24108,24153,24020,23842
18827,18850,18087,18205,18568,18531,18790,19709,19761,19813,19968,20605,21435,22412,23146,23923,24279,24545,24694,25405,25671,26116,25894,25308,25108,24797,24620,24620,24442,24049,23583,23523,22901,22301,22301,22190,22294,22731,23005,23279,23264,22657,22316,22131,22161,22227,22257,21998,21635,21472,21383,21412,21294,21324,21331,21864,22835,24131,25027,25057,24679,24294,24116,23975
19064,19427,19576,19598,19642,19657,19139,19250,19457,19672,19961,20161,20657,21531,22753,23168,24020,24842,25034,25375,25642,26086,26056,25990,25790,25227,25220,25182,25042,24805,24464,24190,23760,22753,22960,23064,23101,23205,23494,23427,23375,23183,22909,22894,22968,23323,23146,22879,22175,21990,22027,21968,21805,21686,21642,21835,22642,23842,24968,25005,24686,24368,24042,23857
20235,20583,20975,20931,20872,20761,20227,19361,19087,19020,19139,19694,20538,21124,21790,22731,23590,24308,24953,25101,25508,25605,25901,26368,26264,25894,25864,25849,25686,25257,24760,24671,24049,23242,23101,23242,23405,23486,23627,23946,23953,23901,23783,23575,23783,23953,23953,23309,22872,22435,22442,22323,22198,21872,22005,22094,23012,24346,24657,24523,24012,23331,22731,22486
20390,20553,21005,21509,21294,21057,20790,20161,20457,20450,20827,20568,20390,20938,21427,21924,22723,23516,23938,24612,25271,26042,26442,26753,26923,26760,26508,26486,26256,25953,25516,25323,24805,24190,24146,23597,23664,23812,23953,24375,24531,24597,24657,24434,24797,24820,24257,23716,23360,23049,22938,22827,22842,22746,22560,22583,23427,24568,24560,23834,23434,23153,22760,22168
19272,20116,20879,21583,21612,21583,21124,21220,21338,21249,21346,21331,21435,21435,20650,21153,21768,22227,22709,23657,24783,25220,25649,26316,26916,26945,26886,26886,26849,26656,26242,26005,25642,24945,24894,24857,24042,24012,24086,24397,24975,25464,25375,25234,25390,25197,24797,24316,23716,23612,23375,23331,23323,23205,23123,23212,24190,24590,24620,23953,23583,23479,23027,21990
19168,19746,20338,21183,21561,21605,21235,21212,21420,21375,21775,22109,21983,21724,21731,21664,21635,21694,22694,22953,23612,24190,24590,25242,26227,27012,27486,27442,27449,27242,26982,26627,26145,25523,25264,25279,25160,24871,24560,24553,24842,25864,26397,26323,25931,25627,25316,24842,24227,24079,23983,23612,23672,23723,23812,23968,24234,24383,23501,22812,22657,22427,22279,21768
18850,19657,20079,20398,21242,22198,22146,22072,22079,21649,21664,22183,22168,22598,23012,23049,23146,23301,23160,23168,23286,23709,24190,24960,25338,26775,27516,28145,27967,28034,28108,27619,26442,25708,25812,25819,25901,25812,25723,25264,25382,25494,27167,27123,26390,26094,25805,25301,25020,24738,24568,24420,24353,24368,24234,24471,24116,23242,22568,22279,21998,21612,21361,21138
17865,19131,19264,19968,21027,22086,22760,23420,23442,22946,22612,22827,23235,23523,23657,23731,23886,24116,24175,24190,24049,24508,24657,25249,25649,26219,27560,28382,28960,28908,29204,28841,27879,26997,26708,26642,26434,26368,26456,26256,26279,26249,27197,27782,27338,27086,26501,25960,25849,25405,25197,25205,25108,25042,25390,24790,23923,23383,23723,23427,23301,22679,22146,22012
17109,17916,18635,19531,20450,21338,22042,22746,23160,23679,23990,24531,24457,24671,24686,24583,24405,24390,24271,24790,25049,25353,25449,25782,26331,26968,27064,28093,29071,29819,30301,30278,29397,28412,27508,27345,27256,27205,27286,27301,27167,27071,27908,28849,28390,27908,26960,26597,26338,26145,25990,25908,25894,26353,26331,25331,24694,24671,25182,24834,24479,23953,23575,23197
17109,17946,18457,19013,19731,20301,20538,21153,21709,22464,23220,24516,24908,24864,25168,25123,25131,25138,25012,25286,25582,26027,26323,26760,27508,27464,27567,28338,29101,29664,30404,30745,30308,29086,28293,28345,28604,27916,27916,27849,27797,28308,29338,29975,29478,28182,27456,27330,27019,26856,26819,26486,27005,26834,26249,25864,25575,26056,25953,25745,25160,24590,24005,23486
16746,17154,17902,18139,19020,19679,20479,21175,21886,22701,23375,24212,24671,25086,25345,25642,25671,25568,25842,26145,26397,26701,26908,27093,27819,28093,28923,29486,29886,30101,30501,31138,30760,29901,29515,29908,29893,28723,28567,28427,28486,29449,30375,30841,30034,28553,28034,27819,27597,27479,27479,27842,28056,27634,26997,26679,26553,26871,26938,26123,25279,24612,23842,22960
17213,17576,17598,17546,18961,19598,20338,21109,21857,22249,22398,22783,23131,23790,25368,25775,25834,26049,26219,26679,27123,27471,27760,28116,28464,29241,29960,30878,32123,32286,32604,32834,32819,31989,31404,31767,31256,30064,29160,29101,29849,30612,31382,31115,29427,29190,28827,28775,28427,28190,28227,28893,28790,28160,27819,27360,27123,26968,26627,25731,24857,24094,23146,23020
18746,18109,17828,18079,18228,18731,19924,20605,21146,20635,21020,21924,22516,23279,24508,25412,25879,26071,26308,26842,27279,27923,28471,28945,29197,29508,30752,31945,32856,33752,34856,34922,34485,33448,33256,33256,33100,31663,31315,31789,31760,32078,32174,31241,30064,30078,30012,29538,29049,28960,28908,29308,29182,28575,28086,27508,26508,25886,25360,24849,24346,23960,23672,23094
19576,19627,18716,19020,19168,19139,19190,19494,19938,20812,21383,22279,23434,23857,24383,25131,25634,25997,26442,27123,27538,28293,29086,29478,30101,30575,31434,32856,33789,34878,36159,36256,35996,35508,35500,35174,34322,33656,33182,33448,33974,34152,33174,31856,31352,31360,31138,30508,29878,29671,29352,29256,28827,28279,27819,27271,26686,26071,25582,25145,24657,24479,23953,23509
20635,20613,21079,20538,19509,19664,20050,20338,20331,21242,22257,22442,23249,24042,24545,25234,25745,26160,26701,27301,27745,28582,29049,29693,30826,31708,32397,33360,34545,35693,37085,37359,37352,37411,37152,36663,35752,35500,35048,35352,36167,36144,34634,33145,32656,32426,32145,31026,30478,30449,30189,29775,29249,28634,28004,27367,26916,26486,26145,25657,25190,24864,24545,24346
21427,21487,21761,21820,21479,20346,20390,20664,21079,21472,22286,22886,23331,23805,24316,25086,25679,26597,27582,27938,28427,29256,30256,31019,32012,32900,33834,34863,35819,36930,37670,37870,38389,38907,38974,38744,38048,37781,37967,37870,37618,36256,35233,34130,33715,33634,33197,32211,31737,31426,30997,30330,29730,28901,28182,27871,27434,26960,26479,26071,25790,25382,25205,24745
23012,22627,22605,23235,23168,22457,21849,22012,21938,21938,22286,22768,23183,23531,24027,24797,25560,26634,27693,28034,28523,29071,30115,31249,32367,33382,34545,35567,36019,37063,37507,37307,38389,38907,39233,38952,38626,38478,38389,38448,38181,36818,35722,35285,35211,34752,34071,33471,32841,32078,31234,30486,29604,28886,28538,28197,27730,27397,26997,26664,26219,25797,25553,25360
22760,22746,22842,23338,23590,23264,23109,23360,23738,23768,23368,22997,23220,23901,24568,24805,25005,25968,26945,27619,28204,29234,30056,31404,32619,33463,33915,34211,34182,34648,35345,35574,36678,37670,38685,38344,38033,38204,38307,38322,38159,37685,37100,36789,36293,35693,35019,34085,33337,32500,31700,31004,30108,29767,28990,28501,28108,27849,27442,26938,26560,26168,25923,25760
21420,21472,22079,22464,22605,22575,22997,23486,24294,24323,24723,25175,25442,25768,25879,25597,25523,25723,26160,27464,28619,30064,30597,30997,31367,32308,32478,32648,33093,33693,33959,34285,35100,36537,37152,37530,37737,38270,38566,38685,38700,38566,38389,37944,37189,36226,35389,34693,34093,33567,32597,31552,30582,29849,29375,28960,28516,28308,27760,27308,26938,26634,26805,27005
20924,21442,21494,21042,21064,21901,22375,22960,23701,24257,24768,25116,25182,25553,25323,25760,26412,26419,26516,27027,27634,28160,28678,29412,30626,30671,31567,32241,33085,33367,33789,33952,34641,36204,36789,37655,38292,38996,39455,39663,39707,39603,39337,38641,37722,37137,36493,35745,34811,33767,32708,31974,31182,30449,29997,29330,28908,28575,28123,27953,27856,28612,28404,28145
20309,20909,21287,20731,21042,21131,21946,22679,23309,23820,24101,24249,24464,24760,25145,25612,26279,26634,26708,27086,27716,28219,28604,29293,29864,31130,32063,32337,33441,33360,33145,33493,34522,36270,36841,37715,38367,39159,39811,39818,39892,39618,39470,39026,38233,37404,36522,35648,34782,33648,32908,32211,31567,30997,30463,29789,29278,28878,28804,29760,30752,30649,29567,29175
19139,19035,19753,21220,22316,22427,21635,22168,23146,23538,23909,24094,24160,24731,25568,26027,26234,26612,26686,26901,27405,28034,29182,30145,30886,31337,32382,32389,31900,31989,32663,33500,34567,35693,36767,38092,38589,39011,39566,39781,39848,39670,39403,38989,38211,37396,36463,35545,35019,34108,33078,32256,31597,31182,30797,30849,30952,31182,31626,32426,32323,31478,30508,29686
18028,18072,18998,20124,21583,21627,22242,22560,22709,23346,23523,23709,23960,25049,25686,26056,26242,26464,26790,27138,27619,28145,28760,29471,29886,30197,30663,30900,31367,32152,32567,33293,34115,35811,37478,38678,38907,39189,39241,39137,39070,38944,38685,38181,37730,37167,35863,35359,34826,33922,33152,32211,31493,31182,30900,30952,30856,31115,31219,31737,31678,30812,30071,29597
16998,18235,19605,21146,23012,23005,23190,23338,23316,23109,23612,23894,24420,25042,25642,26123,27019,27560,27553,27390,27575,27953,28204,28575,29041,29612,30071,30871,31486,32115,32937,34285,34715,35996,37070,38085,39129,39315,39278,39026,38678,38070,37633,37344,36626,36041,36019,35656,34996,33323,33004,32315,31923,30938,30463,30145,29493,29086,28841,29278,29760,29797,29397,28671
17983,18813,19768,21487,22346,22805,23575,24183,24027,23568,23960,24612,25160,25486,25886,26531,27360,27442,27286,26975,27301,27604,28019,28449,28938,29464,29975,31108,32263,33115,33597,34263,34389,35433,35856,37078,38122,38011,37848,37463,37196,37063,36715,36485,35989,34796,34493,35093,34908,33197,33063,32811,32160,31486,30545,29930,29345,28716,28464,27812,27427,27967,28597,28501
18753,19383,20664,21790,22664,23360,24079,24531,24671,24286,24671,24849,25064,25264,25538,26071,26331,26116,26479,26545,26790,27190,27612,27871,28227,28760,30308,31212,32026,32671,32500,32211,33011,33982,35078,36448,36515,36041,36270,36093,36352,36544,35796,35130,34893,33426,32574,33411,33352,32278,31500,30938,30900,31286,30626,30012,29530,28575,28116,27530,27427,27019,26805,27997
19990,20020,20479,21724,22820,23123,23731,24294,24471,24220,24449,24516,24205,24057,24390,24886,25360,25701,25864,25931,26234,26834,27382,27597,28004,28723,30152,30589,30738,30575,30619,31034,32515,33337,34300,34885,34819,34189,34796,35048,35174,34767,34782,34071,33685,32641,31552,31515,32226,32197,31145,30404,30101,29708,29501,29427,29456,28782,27879,27323,26945,26560,26501,27086
21094,20827,21161,21753,22109,22709,23442,23894,23857,23516,23412,23501,23472,23494,23523,24197,24708,24945,25012,25634,25990,26523,26901,27271,27530,28264,29264,29071,29071,29501,30678,31612,32426,32567,32841,33285,33152,32574,33108,33656,33648,33397,33485,32900,32256,31449,30812,30671,31397,31308,30745,30345,30278,29352,28886,28523,28153,27879,27679,27167,26353,25975,25894,25590
21227,21427,22012,22716,22909,22968,23153,23190,23264,22486,22753,22997,23079,23109,22975,23797,24012,24286,24583,25168,25627,25916,26449,26819,27530,28167,28264,28434,28619,29982,30989,31315,30900,30782,31360,31834,31582,31382,32137,32449,32382,31923,31619,31752,31508,30463,30071,29975,29797,29715,29627,29671,29752,29367,28649,28004,27582,27449,27034,26893,26308,25738,24916,24183
21738,22175,22605,22538,22679,22649,22264,22264,21783,21301,21790,21827,22220,22494,22783,23279,23523,23790,24464,25079,25560,26034,26212,26738,27293,27330,27604,28116,29071,29730,30115,29767,29441,29678,30382,30626,29901,30441,31056,31397,31123,30382,29641,29901,30115,29360,29019,28871,28923,28967,29049,29101,29115,29093,28967,28056,27316,26738,25916,25923,26293,25679,24131,23109
21849,22109,22116,22012,21842,21783,21649,21079,20687,21020,21279,21531,21812,22323,22605,22879,23353,24138,24620,25397,25856,25738,25945,26353,26775,27019,27382,28375,28641,27893,28204,28212,28167,28478,28938,28797,29145,29575,30152,30315,30219,29604,28975,28604,28664,28478,27945,27945,27879,28086,28264,28427,28501,28553,28619,27627,27034,26205,25442,24731,24049,23797,22997,22286
21790,21346,21212,20761,20805,20872,20146,19946,20242,20746,21101,21190,21464,21975,23479,24012,24642,24634,24523,25190,25131,25205,25464,25953,26331,26486,27308,27338,27071,26805,27205,27160,27116,27138,27516,28101,28434,29123,29175,28915,28901,28775,28279,27775,27338,26968,26686,26597,26390,27301,27686,27775,27760,27797,27545,27116,26619,25953,25034,24308,23709,23049,22605,22035
21309,20205,19739,19109,19213,19353,19561,19990,20146,20857,20931,20650,20575,21405,22316,23649,24249,24427,24005,24197,24420,24738,25138,25464,25782,26427,26412,25916,25856,26079,26501,26442,26242,26619,27064,27479,27908,28012,27923,27671,27701,27767,27582,27197,26642,26094,26086,25931,25575,26027,26960,27160,27101,27049,27071,26782,26412,25982,25271,24790,24301,23383,22560,21975
19679,18724,18331,18776,19183,19516,20042,20361,20124,20035,20064,19938,20405,20805,21346,21827,22501,23242,23723,23723,24042,24242,24812,25116,25634,25486,25138,25034,25190,25464,25834,25679,25353,25679,26316,26434,26501,26545,26345,26508,26671,26634,26656,26264,25916,25679,25242,24760,24812,24775,25790,26582,26590,26493,26442,26353,26056,25671,25094,24701,24390,23509,22790,22264
17754,17946,18383,18731,18909,19168,20027,20316,19664,19679,19724,19746,21590,22020,22323,22464,22783,23027,22909,22916,23227,23568,24242,24420,24508,24523,24434,24664,24664,24783,24871,24597,24731,25257,25279,25419,25434,25434,25412,25412,25553,25834,26079,25597,25108,24568,24220,23760,23701,24049,25153,25908,25849,25886,25805,25775,25664,25308,24760,24383,23931,23620,23612,22849
17605,17813,18109,18494,18961,19657,20487,20553,19361,19339,19168,19709,21227,21538,22027,22398,22627,22272,21590,21864,22686,23360,23516,23738,23709,23909,23916,23946,24042,23968,23857,23657,24538,24501,24620,24716,24471,24686,24857,24679,24857,25471,25708,25131,24264,24027,23523,22923,23035,23272,24464,24590,25101,25145,25160,25227,25175,24797,23901,23664,23316,23657,24123,23768
18287,18590,18620,18872,19590,20561,20753,20546,19287,18827,18902,19094,19709,20575,21694,21775,21768,21138,21975,22146,22368,22694,22946,23109,23175,23309,23190,23390,23701,23523,23294,22435,23590,23634,23449,23731,23709,24005,24094,24064,23983,25123,24968,24805,24486,23590,22960,22523,22531,22605,23064,23909,24353,24442,24627,24975,24834,24079,23249,22820,23160,23672,23975,23916
18709,19257,19568,19790,19968,20627,20568,19879,18709,18361,18531,18872,19139,19324,19813,20346,21398,21983,22264,22361,21998,22086,22161,22464,22412,22538,22361,22783,22894,22938,22553,21590,22368,22620,22783,22494,23123,23434,23464,23309,23834,24605,24242,24257,24264,23109,22175,21953,21968,21931,22227,22709,23649,23849,24086,24390,24323,23627,22768,22575,23057,23049,23227,23509
19124,19524,19627,19494,19035,18798,18450,18198,18072,18294,18516,18909,19168,19368,20072,20746,21546,21783,22457,22960,22642,21546,21612,21805,21864,21835,22035,22272,22301,22035,22220,20953,20509,22035,22361,21938,21968,22375,22546,22938,23694,23812,23516,23531,23412,22657,21716,21457,21390,21449,21805,22642,23257,23649,23909,24027,23590,22857,22101,22449,22612,22427,22501,22946
18168,17791,17953,17924,17613,17309,17457,17583,18013,18346,18731,18776,19027,19368,20398,20472,21042,21553,22309,22694,22516,21449,21101,21220,21449,21524,21879,21886,20812,21042,20761,20250,20331,21205,21679,21361,21657,21627,22264,22560,23160,23027,22442,22420,22931,22568,21227,21005,21109,21420,22049,22812,23249,23390,23309,23109,23020,22257,21938,22509,22598,22249,22368,22286
16494,16487,16568,17065,17635,17961,17783,18116,19116,19590,19731,19857,20035,20220,20153,20442,20687,20990,21146,21398,21672,20931,20879,20983,20812,21005,21205,21057,19901,19509,19590,20390,20790,20805,20701,21272,21272,21190,21798,22212,22435,22205,21812,21509,21849,21383,20568,20709,20842,21442,22027,22583,22953,22827,22531,22560,22568,21894,21820,21731,21494,21709,22168,22190
16539,17005,17102,17331,18642,18694,18546,19072,19457,19687,19901,20183,20990,21012,20724,20450,19961,20220,20346,21012,20975,20242,20309,20324,20183,19968,19924,19850,19079,19250,20516,20768,20672,20220,20509,20827,20835,21094,21353,21501,21642,21479,21235,20968,20731,20027,19887,20094,20620,21390,21716,21916,22012,22035,22086,22190,22005,21694,21731,21561,21509,21153,21361,21812
